ply
format ascii 1.0
comment PCL generated
element vertex 604
property float x
property float y
property float z
property uchar red
property uchar green
property uchar blue
property float nx
property float ny
property float nz
property float curvature
element camera 0
property float view_px
property float view_py
property float view_pz
property float x_axisx
property float x_axisy
property float x_axisz
property float y_axisx
property float y_axisy
property float y_axisz
property float z_axisx
property float z_axisy
property float z_axisz
property float focal
property float scalex
property float scaley
property float centerx
property float centery
property int viewportx
property int viewporty
property float k1
property float k2
end_header
-0.50588155 0.15219928 1.6641988 58 11 5 0.43758497 -0.87514877 -0.20648032 0
-0.50367868 0.15442295 1.6569519 58 11 5 0.40317002 -0.90579438 -0.1303471 0
-0.50117081 0.15652609 1.6487019 55 9 9 0.29593709 -0.93511611 -0.19488256 0
-0.4993057 0.15880492 1.6425662 54 8 11 0.48946881 -0.84124851 -0.22961102 0
-0.49798587 0.16123895 1.6382244 55 8 14 0.27245328 -0.85905325 -0.43335554 0
-0.49682423 0.16370998 1.6344029 55 8 14 0.10417591 -0.85538447 -0.50740999 0
-0.49561608 0.16615207 1.6304284 54 8 11 -0.1038679 -0.80110568 -0.58944136 0
-0.49466059 0.1686665 1.6272852 54 8 8 -0.14962372 -0.75987738 -0.63261306 0
-0.49364957 0.17115064 1.6239592 56 11 8 -0.3048436 -0.75306523 -0.5830636 0
-0.49238801 0.17353503 1.619809 56 11 5 -0.3650873 -0.74196899 -0.5623107 0
-0.49125138 0.17594959 1.6160699 56 11 5 -0.45327571 -0.74091375 -0.49556851 0
-0.4894976 0.1781266 1.6103005 57 13 4 -0.34310102 -0.85410231 -0.39088503 0
-0.48743016 0.18016759 1.6034993 59 16 7 -0.42597675 -0.82312709 -0.37550703 0
-0.48536813 0.18218686 1.5967158 57 17 9 -0.32075784 -0.84947026 -0.41894472 0
-0.48399425 0.18444474 1.5921961 57 18 13 -0.39919564 -0.80656928 -0.43599167 0
-0.48203731 0.1864614 1.5857583 60 21 14 -0.4370448 -0.80895215 -0.39317706 0
-0.48017168 0.18849143 1.5796211 63 25 16 -0.27195221 -0.89094913 -0.36366433 0
-0.4781895 0.19045365 1.5731002 63 25 12 -0.11370997 -0.94846344 -0.29578251 0
-0.47597077 0.19229756 1.5658013 62 27 8 -0.29929441 -0.89810789 -0.32221913 0
-0.47382849 0.19414747 1.5587538 63 27 11 -0.11010928 -0.94051743 -0.32140738 0
-0.47213605 0.19615963 1.5531862 61 28 13 -0.30600965 -0.7510621 -0.58503318 0
-0.47172052 0.19869028 1.5518192 65 31 19 -0.13072971 -0.50386024 -0.85383517 0
-0.47119367 0.20116861 1.550086 63 31 16 -0.14734209 -0.47658816 -0.86669141 0
-0.47083506 0.2037137 1.5489063 61 34 15 -0.11492359 -0.34347767 -0.93210286 0
-0.47059566 0.20630693 1.5481188 60 38 15 -0.13244252 -0.27679679 -0.95175761 0
-0.42710739 0.19213709 1.4050554 50 33 15 0.52017462 -0.80353433 -0.28939775 0
-0.42603752 0.19409727 1.4015359 34 15 1 0.75704396 -0.64530891 -0.10227755 0
-0.42483672 0.19598484 1.3975856 37 12 7 0.83395863 -0.51131356 -0.20753655 0
-0.42461529 0.19831598 1.3968571 45 15 15 0.93478441 -0.17505747 -0.30908418 0
-0.42441773 0.20065595 1.3962072 48 14 15 0.88238382 -0.2115643 -0.42028502 0
-0.42418018 0.20297442 1.3954257 55 19 19 0.89208078 -0.1204573 -0.43552488 0
-0.42417186 0.20540123 1.3953984 58 20 17 0.87158948 0.063422494 -0.48611665 0
-0.42430654 0.20789798 1.3958415 53 20 15 0.82986152 0.1829824 -0.52711219 0
-0.42453155 0.21044108 1.3965816 48 22 23 0.82116437 0.22739144 -0.52343309 0
-0.4247618 0.21298942 1.3973391 22 3 0 0.83835286 0.17485029 -0.51632535 0
-0.42487904 0.21548308 1.3977249 13 0 0 0.86976051 0.037513729 -0.49204609 0
-0.42388549 0.23198314 1.3944563 1 0 5 0.21521376 -0.17269897 -0.96117532 0
-0.53767967 0.075925909 1.7789999 55 33 0 0 -0.058271259 -0.99830079 0
-0.5375706 0.079008937 1.778639 47 16 0 0.010967392 -0.1662914 -0.98601556 0
-0.53736722 0.082076274 1.7779661 44 7 0 0.024284409 -0.27782544 -0.96032459 0
-0.53704017 0.085121587 1.776884 45 4 0 0.050565228 -0.4622606 -0.88530129 0
-0.53643012 0.08811675 1.7748656 48 3 0 0.12094497 -0.63373566 -0.7640363 0
-0.53561693 0.091070272 1.7721751 51 2 0 0.17711513 -0.64474344 -0.74359679 0
-0.53498077 0.094045572 1.7700702 52 1 0 0.11526255 -0.84388649 -0.52399439 0
-0.5330146 0.096772075 1.7635648 59 8 5 0.31255662 -0.88980418 -0.33250102 0
-0.53150636 0.099561714 1.7585745 58 7 4 0.097875468 -0.91951382 -0.38067672 0
-0.52933389 0.10220565 1.7513865 56 7 3 0.090396933 -0.90160108 -0.42301759 0
-0.52819717 0.10503056 1.7476256 58 9 5 0.064863324 -0.84041673 -0.53804493 0
-0.52679151 0.10778726 1.7429746 58 9 5 0.11911128 -0.85252571 -0.50893253 0
-0.52557868 0.11056842 1.7389618 59 8 4 0.21698228 -0.82684767 -0.51888508 0
-0.52441466 0.11334609 1.7351105 62 11 7 0.0041521667 -0.8988983 -0.43813759 0
-0.52228457 0.11589602 1.7280627 66 15 11 0.0015996059 -0.93018377 -0.36709088 0
-0.52047682 0.11849471 1.7220814 65 14 11 -0.18204549 -0.92084253 -0.34483096 0
-0.51756161 0.12081409 1.7124361 61 9 11 0.0058503239 -0.92161983 -0.38804981 0
-0.51681542 0.12361865 1.7099673 64 12 14 -0.042027306 -0.71995634 -0.69274575 0
-0.51579136 0.1263466 1.7065789 63 14 10 -0.061097272 -0.72213376 -0.68905002 0
-0.51502275 0.12912673 1.7040358 61 12 5 -0.08983615 -0.67170817 -0.7353487 0
-0.51420367 0.13188504 1.7013258 60 12 2 -0.11650685 -0.63036716 -0.76750469 0
-0.51357675 0.13468437 1.6992517 61 12 5 -0.075387657 -0.70731413 -0.7028681 0
-0.51248521 0.13735195 1.69564 60 12 10 -0.14029299 -0.8056255 -0.57557404 0
-0.51117361 0.13994661 1.6913004 61 11 14 -0.34433907 -0.83529222 -0.42862266 0
-0.50871068 0.14220442 1.6831512 60 7 13 -0.24483724 -0.89217204 -0.37958375 0
-0.50701982 0.14465407 1.6775568 59 6 12 -0.16082139 -0.85953683 -0.48511109 0
-0.50573593 0.14720269 1.673309 59 9 10 -0.19093913 -0.79035717 -0.5821321 0
-0.50467467 0.14980251 1.6697975 59 9 8 0.035260625 -0.81247163 -0.5819335 0
-0.50358933 0.15238293 1.6662066 57 9 5 0.21073219 -0.89651364 -0.38968593 0
-0.50173885 0.15471481 1.6600839 58 10 8 0.30525821 -0.9378584 -0.16504228 0
-0.49883834 0.15669559 1.6504871 58 10 10 0.37605038 -0.91084141 -0.17015839 0
-0.4974573 0.15912895 1.6459177 56 7 11 0.35737959 -0.89317602 -0.27297702 0
-0.4955278 0.16136785 1.6395336 56 9 15 0.21034722 -0.92631 -0.31257603 0
-0.49403372 0.16372871 1.6345903 55 8 16 -0.00031754829 -0.89296073 -0.45013449 0
-0.49267846 0.16611919 1.6301061 53 6 12 -0.108272 -0.83338606 -0.54198247 0
-0.49162546 0.16859777 1.6266222 52 6 9 -0.38020113 -0.74362516 -0.54997158 0
-0.49019238 0.17093158 1.6218805 54 8 8 -0.43458027 -0.74197459 -0.51050347 0
-0.48885459 0.17328268 1.6174543 56 11 6 -0.35237616 -0.80901808 -0.47044745 0
-0.48713574 0.17548119 1.6117672 57 13 4 -0.53484708 -0.70755154 -0.4618544 0
-0.48567051 0.1777526 1.6069192 60 15 9 -0.45475024 -0.79282755 -0.40574232 0
-0.48337066 0.17969687 1.5993098 60 16 13 -0.42057776 -0.80638021 -0.41577068 0
-0.48208606 0.18199794 1.5950595 61 17 16 -0.3439827 -0.82482809 -0.44870305 0
-0.48021576 0.18405963 1.5888714 60 19 17 -0.34637234 -0.86280316 -0.36823475 0
-0.47811583 0.18601045 1.5819234 62 21 15 -0.36101833 -0.83994073 -0.40517303 0
-0.4766697 0.1881952 1.5771385 63 25 12 -0.37613451 -0.80914593 -0.4514485 0
-0.47502252 0.19028279 1.5716887 64 27 9 -0.17161433 -0.9160189 -0.36257109 0
-0.47307509 0.1922293 1.5652452 63 27 5 -0.094746158 -0.94872886 -0.30155727 0
-0.47100773 0.19410406 1.5584052 64 28 6 -0.090635501 -0.94524187 -0.3135331 0
-0.46923321 0.19607724 1.5525337 65 29 13 -0.10760876 -0.82017028 -0.56190854 0
-0.46888623 0.19863479 1.5513858 67 34 19 -0.11816688 -0.4708629 -0.87425667 0
-0.46837756 0.20111883 1.5497028 66 34 19 -0.10763086 -0.45882484 -0.88198382 0
-0.46806237 0.20368132 1.5486599 65 36 20 -0.062524289 -0.3368451 -0.93948185 0
-0.46780822 0.20626703 1.547819 62 36 19 -0.076430343 -0.3015615 -0.95037842 0
-0.42524976 0.19240408 1.4070073 54 32 19 0.58764994 -0.59666526 -0.54649621 0
-0.42470187 0.19460396 1.4051946 32 10 0 0.78274232 -0.5272544 -0.3306317 0
-0.42403138 0.19674072 1.4029762 37 9 0 0.89793646 -0.39821029 -0.18745278 0
-0.42355859 0.19896266 1.4014119 47 15 4 0.89002234 -0.40058488 -0.21769705 0
-0.42294404 0.20111169 1.3993785 48 10 1 0.87614405 -0.36170831 -0.31865153 0
-0.42271945 0.20344126 1.3986354 56 18 9 0.92565209 -0.11231842 -0.36132064 0
-0.42269236 0.20586453 1.3985459 59 22 13 0.92345196 0.012100103 -0.38352323 0
-0.42274639 0.20832741 1.3987247 53 20 13 0.90907872 0.12938517 -0.3960245 0
-0.42298493 0.21088298 1.3995138 42 16 15 0.89657861 0.20084469 -0.39472568 0
-0.42321217 0.21343552 1.4002658 18 1 0 0.90931743 0.15679343 -0.38543186 0
-0.42131847 0.23433563 1.3940001 0 1 0 0 -0.19691235 -0.98042113 0
-0.42131847 0.23676394 1.3940002 0 10 20 2.4545297e-05 4.9091501e-05 -0.99999994 0
-0.53458065 0.075925894 1.7789998 47 28 0 1.926969e-05 -0.05042167 -0.99872804 0
-0.53448683 0.079011053 1.7786876 44 16 0 0.020863559 -0.14954394 -0.98853493 0
-0.53430253 0.082081251 1.7780745 45 11 0 0.044977181 -0.25277853 -0.96647817 0
-0.53401232 0.085132383 1.7771087 44 5 0 0.083661601 -0.41184908 -0.90740347 0
-0.53349811 0.088143185 1.7753973 46 3 0 0.16301891 -0.58674431 -0.79319364 0
-0.53276092 0.091109812 1.7729442 54 7 0 0.231535 -0.62837547 -0.74265456 0
-0.53211689 0.094084382 1.7708009 54 5 0 0.18362623 -0.7725178 -0.60786313 0
-0.53072828 0.09691561 1.7661798 55 6 1 0.45598876 -0.83917749 -0.296404 0
-0.52888203 0.099644437 1.7600359 56 7 2 0.13602823 -0.94270033 -0.30465141 0
-0.52637643 0.10222382 1.7516974 56 7 3 0.029480558 -0.91717976 -0.39738148 0
-0.52521896 0.10504377 1.7478456 58 9 5 0.15498511 -0.82830477 -0.53841501 0
-0.52398878 0.10783534 1.7437519 60 11 6 0.15828712 -0.80467051 -0.57223284 0
-0.52302444 0.11066891 1.7405427 61 11 4 0.22499652 -0.84405291 -0.48677638 0
-0.52146077 0.11336102 1.735339 63 13 6 -0.020262245 -0.91911244 -0.39347416 0
-0.5192945 0.11590052 1.7281301 65 14 10 -0.0051877047 -0.94021201 -0.34055036 0
-0.51722938 0.11843802 1.7212577 64 13 10 -0.096780673 -0.94057083 -0.32551509 0
-0.51460397 0.12082002 1.7125207 59 7 9 0.016755499 -0.91210896 -0.40960553 0
-0.51380926 0.12361205 1.7098761 63 11 13 -0.0067790593 -0.74296737 -0.66929346 0
-0.51275969 0.12633207 1.7063832 63 14 10 -0.025663225 -0.74370724 -0.66801262 0
-0.51195163 0.12910081 1.703694 60 11 4 -0.058090948 -0.69035327 -0.72113651 0
-0.51113093 0.13185692 1.700963 59 11 1 -0.054809228 -0.63590544 -0.76981825 0
-0.51054043 0.13466425 1.6989979 60 11 4 -0.082442522 -0.73490298 -0.67314255 0
-0.50928223 0.13728477 1.6948107 60 12 10 -0.21037088 -0.84711373 -0.48799822 0
-0.50749564 0.13974519 1.6888653 60 10 13 -0.45950347 -0.79494411 -0.39613187 0
-0.5049451 0.14197007 1.6803775 60 8 12 -0.3391785 -0.84131217 -0.42089409 0
-0.50369626 0.14453888 1.6762216 58 6 8 -0.33447865 -0.75113535 -0.56913966 0
-0.50247383 0.147101 1.6721535 58 8 7 -0.22613786 -0.74172574 -0.63143069 0
-0.50163019 0.14976209 1.6693461 59 10 6 -0.1881863 -0.68824387 -0.70064706 0
-0.50076973 0.15240815 1.6664826 56 9 3 -0.083767518 -0.80188537 -0.59157652 0
-0.4994444 0.15490013 1.6620719 56 8 4 0.14002644 -0.93558174 -0.32415938 0
-0.49718279 0.15708089 1.6545457 58 10 8 0.25034064 -0.94808596 -0.19611883 0
-0.49489975 0.15922862 1.6469481 56 8 8 0.10342446 -0.95571619 -0.27551776 0
-0.4930509 0.16149199 1.6407955 56 10 12 0.066576749 -0.94583565 -0.31774616 0
-0.49112895 0.16370964 1.6343995 55 9 12 -0.056325443 -0.92122751 -0.38492522 0
-0.48962474 0.16604662 1.6293937 53 7 10 -0.13713343 -0.90498793 -0.40272969 0
-0.48772806 0.16823082 1.6230818 52 6 8 -0.30621445 -0.84129369 -0.44548586 0
-0.48637879 0.17058504 1.6185918 55 10 7 -0.53296942 -0.63472676 -0.55952251 0
-0.48542032 0.17306283 1.6154021 56 11 6 -0.46741307 -0.75285435 -0.46339554 0
-0.48322812 0.17508259 1.6081069 58 14 5 -0.43668646 -0.80054623 -0.41040319 0
-0.48173857 0.17733563 1.6031499 61 16 10 -0.52130228 -0.72426367 -0.45131609 0
-0.47998556 0.1794728 1.5973161 61 16 13 -0.33835179 -0.83294499 -0.43785933 0
-0.4784967 0.18168998 1.5923615 62 18 17 -0.45773348 -0.76245397 -0.45732269 0
-0.4768613 0.18383345 1.586919 65 21 20 -0.35122415 -0.84277362 -0.40788999 0
-0.47499689 0.18586835 1.5807146 66 25 19 -0.19346415 -0.90995115 -0.36682507 0
-0.47323826 0.18792358 1.5748621 66 28 15 -0.25971413 -0.85330707 -0.45212361 0
-0.47203889 0.19018379 1.5708708 65 28 9 -0.14191276 -0.90178448 -0.40822235 0
-0.47011682 0.19213468 1.5644745 64 28 4 -0.14599086 -0.93872833 -0.31221095 0
-0.46803176 0.19399571 1.5575356 64 28 4 -0.19606119 -0.91524917 -0.35196421 0
-0.4664484 0.19604349 1.5522665 64 29 9 -0.05368755 -0.80408704 -0.59208256 0
-0.46610042 0.19859926 1.5511086 66 31 12 -0.087671153 -0.47495571 -0.87563163 0
-0.46560106 0.20108564 1.5494467 64 31 12 -0.072648831 -0.43972772 -0.89518803 0
-0.46533358 0.2036677 1.5485567 63 32 12 -0.0083061438 -0.3207987 -0.94711095 0
-0.46507403 0.20625021 1.5476928 60 33 14 0.030243112 -0.31983089 -0.94699186 0
-0.42328644 0.19262594 1.4086304 52 29 15 0.62178242 -0.4122563 -0.66590637 0
-0.42295232 0.19492583 1.4075185 31 4 0 0.74872285 -0.41235721 -0.51901418 0
-0.42252803 0.1971797 1.4061065 37 7 0 0.85813755 -0.36514956 -0.36092362 0
-0.42214999 0.19945055 1.4048485 45 11 1 0.86599022 -0.40030587 -0.29969341 0
-0.42157364 0.20162217 1.4029304 48 10 0 0.8959527 -0.32430434 -0.30347231 0
-0.42138052 0.20397259 1.4022877 55 15 3 0.93959463 -0.092396043 -0.32958299 0
-0.42135668 0.20640367 1.4022084 54 18 6 0.93895096 0.044922065 -0.34110537 0
-0.42148748 0.20891115 1.4026437 53 20 11 0.93206584 0.15078741 -0.32941806 0
-0.42173392 0.2114781 1.4034638 42 14 11 0.93012482 0.19232668 -0.31285495 0
-0.42198908 0.21405239 1.404313 14 0 0 0.94835693 0.14329255 -0.28299546 0
-0.53141242 0.079014674 1.7787681 50 24 0 0.027706923 -0.12221079 -0.9921174 0
-0.53125674 0.08208923 1.7782471 49 17 2 0.05888325 -0.21677497 -0.97444415 0
-0.531012 0.085147671 1.7774279 46 8 0 0.10328545 -0.35140097 -0.93051034 0
-0.53059226 0.088174239 1.7760229 45 2 0 0.17933892 -0.52463222 -0.8322252 0
-0.52994865 0.091157369 1.7738686 52 8 0 0.25557724 -0.60534847 -0.75381267 0
-0.52929455 0.094131052 1.7716793 56 8 0 0.29958642 -0.61440063 -0.72990388 0
-0.52861893 0.097093269 1.7694178 55 7 0 0.37738466 -0.86742735 -0.32426944 0
-0.52600402 0.099680074 1.7606651 55 7 0 0.08896739 -0.96315455 -0.25380707 0
-0.52334899 0.10222846 1.7517779 54 7 0 0.059837487 -0.9098624 -0.41057268 0
-0.52255273 0.10511995 1.7491128 59 10 5 0.19680318 -0.80561763 -0.55879229 0
-0.52114803 0.10787611 1.7444108 62 13 8 0.15530568 -0.82789254 -0.53895658 0
-0.5201903 0.11071105 1.7412051 61 12 5 0.058129773 -0.87487423 -0.48084927 0
-0.51828778 0.1133282 1.7348368 62 14 4 -0.10107085 -0.91568857 -0.38897198 0
-0.51624084 0.11589078 1.7279851 63 13 4 -0.04590632 -0.93789232 -0.34387606 0
-0.51399696 0.11838414 1.7204744 62 12 5 -0.091836043 -0.93954712 -0.32987481 0
-0.51165783 0.1208288 1.7126448 59 8 5 0.047319241 -0.90070027 -0.43185648 0
-0.51084119 0.12361461 1.7099112 62 11 8 0.020280439 -0.75496215 -0.65545481 0
-0.5097819 0.12633079 1.7063656 62 11 7 0.0057031154 -0.7571004 -0.6532737 0
-0.50894964 0.12909213 1.7035797 60 9 5 0.00093606935 -0.70217687 -0.71200198 0
-0.50815535 0.13185367 1.7009211 59 10 3 -0.017220747 -0.66887218 -0.74317789 0
-0.50745028 0.13462964 1.6985611 61 12 5 -0.20744917 -0.77942252 -0.59115607 0
-0.50582564 0.13714808 1.693123 61 12 8 -0.30350831 -0.88497573 -0.35312992 0
-0.50278938 0.13925649 1.6829598 59 9 8 -0.43459302 -0.81628776 -0.38053009 0
-0.50132543 0.14177424 1.6780597 60 8 10 -0.33064741 -0.77762175 -0.53476793 0
-0.50008148 0.14433834 1.6738958 59 8 7 -0.35043702 -0.69005311 -0.63326192 0
-0.49928012 0.1470183 1.6712135 59 10 5 -0.283494 -0.65406936 -0.70130187 0
-0.49839392 0.14966342 1.6682472 59 11 1 -0.23886412 -0.67866904 -0.69451588 0
-0.49755725 0.15231344 1.6654466 58 10 0 -0.24285373 -0.71391541 -0.65677017 0
-0.49648899 0.1548814 1.6618708 58 10 0 -0.18380946 -0.88048351 -0.43699297 0
-0.49427962 0.15707426 1.6544756 58 11 1 -0.1061207 -0.94222552 -0.31772542 0
-0.49216717 0.15927275 1.6474047 57 10 4 -0.057969853 -0.94807523 -0.31271851 0
-0.49007946 0.16145472 1.6404166 56 8 4 -0.14778605 -0.92687732 -0.34504738 0
-0.48813066 0.16365893 1.6338935 57 9 5 -0.077860482 -0.92615479 -0.36901888 0
-0.48648661 0.16594437 1.6283906 55 7 3 -0.22029339 -0.87964237 -0.42154494 0
-0.48478323 0.16819012 1.6226889 56 9 3 -0.26195383 -0.88964105 -0.37405735 0
-0.48261592 0.17025222 1.6154343 58 11 5 -0.41177744 -0.80629367 -0.42465267 0
-0.48127353 0.17258497 1.6109411 59 12 4 -0.47721842 -0.7446968 -0.46657184 0
-0.47952479 0.17475387 1.6050875 60 13 5 -0.42480022 -0.80198187 -0.41996405 0
-0.47775114 0.17689326 1.5991508 63 16 10 -0.46524721 -0.75125414 -0.46814767 0
-0.47648993 0.17920467 1.5949291 63 16 10 -0.4355033 -0.77422684 -0.45924905 0
-0.47466433 0.18128578 1.5888184 64 19 14 -0.36329824 -0.82490116 -0.43307346 0
-0.47323018 0.18349737 1.584018 66 22 19 -0.44693762 -0.75164676 -0.48505035 0
-0.47183871 0.18570909 1.5793604 66 25 19 -0.29507995 -0.83911484 -0.45696184 0
-0.4702799 0.18783773 1.5741427 66 28 19 -0.097809084 -0.88907689 -0.44718641 0
-0.46905801 0.19008471 1.5700527 65 28 12 -0.10402545 -0.91996133 -0.37795505 0
-0.46700212 0.19197462 1.5631711 63 28 8 -0.11918902 -0.95192778 -0.28218377 0
-0.46479768 0.19377859 1.5557922 63 29 4 -0.22418997 -0.89169979 -0.39320543 0
-0.46369615 0.19602311 1.5521052 67 33 8 -0.059643555 -0.70679969 -0.7048949 0
-0.46332568 0.19856814 1.5508652 68 34 7 -0.14512844 -0.4649587 -0.87335622 0
-0.46285248 0.20106414 1.5492812 65 34 5 -0.12915361 -0.38559747 -0.91358316 0
-0.46265328 0.20367536 1.5486145 65 36 6 -0.10882318 -0.23221484 -0.96655774 0
-0.46246442 0.20628877 1.5479823 64 37 8 -0.099514492 -0.22714603 -0.96876293 0
-0.42181858 0.1906177 1.4119307 59 33 8 0 0 0 0
-0.42135054 0.19286306 1.410364 57 30 9 0.56421429 -0.41191995 -0.71553081 0
-0.42117536 0.19523869 1.4097776 34 6 0 0.67452037 -0.2125932 -0.70698404 0
-0.42101794 0.19762062 1.4092507 37 6 1 0.77689469 -0.25646567 -0.57503057 0
-0.42072925 0.19993833 1.4082843 43 8 6 0.79933417 -0.41716886 -0.43247563 0
-0.4201811 0.20212793 1.4064497 47 7 5 0.88685477 -0.30783385 -0.34456781 0
-0.42003959 0.20450902 1.4059759 53 12 6 0.9316591 -0.061220195 -0.35813886 0
-0.42004228 0.20695958 1.4059849 50 14 2 0.93202609 0.064784169 -0.35655335 0
-0.4201912 0.20948309 1.4064834 51 17 7 0.91260463 0.19671658 -0.35840678 0
-0.42052093 0.21209943 1.4075872 39 8 5 0.89234811 0.27220923 -0.36002377 0
-0.42087224 0.21473071 1.4087631 28 5 0 0.92957777 0.13257898 -0.3439596 0
-0.52834052 0.07901869 1.7788583 54 31 0 0.027600601 -0.091320038 -0.99543911 0
-0.52821589 0.082098044 1.7784386 47 19 0 0.059798505 -0.17830437 -0.98215663 0
-0.52801508 0.08516369 1.7777625 49 13 0 0.10324087 -0.29315495 -0.95047432 0
-0.52767402 0.088203534 1.7766143 44 4 0 0.15814641 -0.45594302 -0.87584573 0
-0.52712864 0.091204062 1.7747781 51 7 0 0.23996624 -0.53530312 -0.80985606 0
-0.52659208 0.09419971 1.7729715 54 7 0 0.27450588 -0.55241787 -0.78707117 0
-0.52600008 0.097178884 1.7709782 55 9 0 0.16675374 -0.90416962 -0.39328158 0
-0.52323413 0.099736683 1.7616656 54 8 0 0.37085688 -0.91776693 -0.14201798 0
-0.52049875 0.10226808 1.7524559 54 7 0 0.2078689 -0.91346699 -0.34981209 0
-0.51966417 0.10515194 1.7496461 59 12 6 0.10665759 -0.79774821 -0.59348303 0
-0.518354 0.10792705 1.7452347 63 14 9 0.16474652 -0.84631282 -0.5065701 0
-0.51714945 0.11070938 1.7411792 62 13 6 -0.064353026 -0.89559543 -0.44019029 0
-0.51498145 0.11326566 1.7338799 60 11 4 -0.11906924 -0.91783625 -0.3786808 0
-0.51306492 0.11585335 1.7274271 62 12 3 -0.078914151 -0.93058109 -0.3574791 0
-0.51078707 0.11833484 1.719758 61 11 2 -0.095069028 -0.93082297 -0.35288891 0
-0.50880218 0.12085915 1.7130748 60 10 3 0.052555721 -0.88348645 -0.4654994 0
-0.50790215 0.12362429 1.7100447 61 10 6 0.032171704 -0.77591395 -0.63001794 0
-0.50682884 0.12633561 1.7064309 61 10 6 0.018087626 -0.75943285 -0.65033418 0
-0.5060181 0.12910135 1.7037013 60 9 5 0.050880555 -0.71913731 -0.69300282 0
-0.50516641 0.13184693 1.7008338 60 11 4 -0.019094206 -0.77940047 -0.62623495 0
-0.50400436 0.13449965 1.6969212 62 13 6 -0.28865215 -0.84187412 -0.45599106 0
-0.50178701 0.13685103 1.6894557 62 13 8 -0.50492752 -0.77887279 -0.37202889 0
-0.49923071 0.13908187 1.6808491 60 11 7 -0.28605375 -0.86768293 -0.40657055 0
-0.49794599 0.14164443 1.6765234 61 10 9 -0.2809163 -0.76970792 -0.57326758 0
-0.49682379 0.14423914 1.6727451 61 10 7 -0.26202822 -0.72594702 -0.63587892 0
-0.49592093 0.14688563 1.6697054 60 12 2 -0.33599919 -0.6195966 -0.70936912 0
-0.49521139 0.14957999 1.6673164 60 12 0 -0.30943555 -0.62911659 -0.71306521 0
-0.49431938 0.15220976 1.6643131 60 13 0 -0.23800549 -0.76976687 -0.59229422 0
-0.49297309 0.15468651 1.6597804 59 11 0 -0.22081438 -0.8762641 -0.42825487 0
-0.4909347 0.15692629 1.6529173 57 10 0 -0.25646234 -0.8940289 -0.36734104 0
-0.48890662 0.15914552 1.6460891 59 12 4 -0.29984942 -0.88399297 -0.35867372 0
-0.4866949 0.16128007 1.6386424 55 7 3 -0.27988389 -0.87671149 -0.39120582 0
-0.48513454 0.16360839 1.6333889 56 9 3 -0.10497739 -0.92157513 -0.37373671 0
-0.4831146 0.16576076 1.6265881 56 9 1 -0.22648488 -0.91257232 -0.34046489 0
-0.48094067 0.16783555 1.6192687 58 11 1 -0.36648467 -0.85572928 -0.36526221 0
-0.47895905 0.16995317 1.6125968 60 13 3 -0.38187703 -0.80250025 -0.45843577 0
-0.47782069 0.17235173 1.6087641 60 13 3 -0.3917537 -0.8029722 -0.44918245 0
-0.47577068 0.17440267 1.601862 61 14 6 -0.30039552 -0.86545241 -0.4009423 0
-0.47428474 0.17663974 1.596859 64 17 11 -0.28888413 -0.84670156 -0.44681358 0
-0.47269383 0.17881966 1.5915025 66 18 14 -0.36889279 -0.78900719 -0.49131018 0
-0.47152123 0.18114156 1.5875545 66 21 18 -0.29922697 -0.84207684 -0.44874239 0
-0.46966201 0.18318197 1.5812949 67 23 20 -0.28612933 -0.85058135 -0.44118166 0
-0.46845835 0.18546005 1.5772421 65 24 20 -0.27522904 -0.77852011 -0.5640527 0
-0.4674474 0.18780145 1.5738384 64 26 17 -0.022561081 -0.85403168 -0.51973146 0
-0.46619713 0.19003341 1.569629 64 28 12 -0.19734636 -0.89924908 -0.39039156 0
-0.46413562 0.19191532 1.5626881 64 29 7 -0.082813494 -0.96242911 -0.25859672 0
-0.46177971 0.19364953 1.554756 65 31 4 -0.19019271 -0.89896238 -0.39458007 0
-0.46091691 0.19599104 1.551851 65 31 3 -0.11571798 -0.66155398 -0.74091548 0
-0.46043459 0.19848642 1.5502272 67 34 3 -0.24099909 -0.48575661 -0.84021425 0
-0.459979 0.20098786 1.5486932 64 34 0 -0.23076254 -0.37120262 -0.8994205 0
-0.45975766 0.2035877 1.5479481 67 37 3 -0.2605291 -0.25564632 -0.93100458 0
-0.45951745 0.20617642 1.5471393 68 39 7 -0.29313734 -0.26024088 -0.91997021 0
-0.41925421 0.19302905 1.4115778 52 26 3 0.50041991 -0.21844174 -0.83777267 0
-0.41909727 0.19541486 1.4110495 34 6 0 0.55762661 -0.19314887 -0.8073079 0
-0.41897207 0.19781373 1.410628 37 6 3 0.61945611 -0.16561462 -0.76736301 0
-0.41884923 0.20021237 1.4102143 44 10 9 0.72756475 -0.19298226 -0.65833688 0
-0.41865984 0.20257732 1.4095767 47 9 8 0.86316735 -0.132912 -0.4871102 0
-0.41859496 0.20500101 1.4093583 52 13 8 0.89219832 -0.010163284 -0.45152962 0
-0.41863918 0.20747805 1.4095072 53 16 7 0.89636183 0.09969075 -0.43196929 0
-0.41880772 0.21001793 1.4100746 45 11 2 0.88570422 0.19109379 -0.42309722 0
-0.41906318 0.21260391 1.4109347 32 1 0 0.86275351 0.24501465 -0.44229415 0
-0.52516985 0.08210618 1.7786146 43 15 0 0.050917171 -0.14140947 -0.9886409 0
-0.52500916 0.08517845 1.7780704 51 18 3 0.092348583 -0.25194451 -0.96332538 0
-0.52471024 0.088225625 1.7770582 49 9 0 0.13661289 -0.40093032 -0.90586525 0
-0.52425063 0.091241241 1.7755015 53 8 2 0.21381578 -0.51809323 -0.82816797 0
-0.52367944 0.094231442 1.7735672 54 7 0 0.17389505 -0.57138413 -0.80204791 0
-0.52307105 0.097207904 1.7715065 54 7 0 0.16295964 -0.69181544 -0.70344549 0
-0.52208322 0.10010446 1.7681611 55 8 0 0.40507913 -0.90104938 -0.15498711 0
-0.51805222 0.10238788 1.7545091 55 8 0 0.41443563 -0.90069598 -0.13034593 0
-0.51674414 0.10517793 1.7500788 59 11 9 0.12884791 -0.84415275 -0.5203886 0
-0.51555711 0.10797799 1.7460588 62 14 14 0.05944261 -0.87628388 -0.47811416 0
-0.51388288 0.11065913 1.7403886 61 11 10 -0.15453324 -0.89991367 -0.40776807 0
-0.5117169 0.1132117 1.7330531 59 10 5 -0.11184103 -0.91792244 -0.38067052 0
-0.50986683 0.11581044 1.7267872 60 11 4 -0.082842313 -0.92925477 -0.36003181 0
-0.50757015 0.11828326 1.719009 60 11 4 -0.096386977 -0.92294544 -0.37266785 0
-0.5058614 0.12086955 1.7132219 60 9 5 0.004070227 -0.85553294 -0.51773244 0
-0.50496519 0.12363455 1.7101867 60 9 6 0.030602464 -0.77877724 -0.6265536 0
-0.50388151 0.12634198 1.7065166 60 9 6 0.019147512 -0.75206298 -0.65881306 0
-0.50313127 0.12912217 1.7039757 61 10 7 0.076136388 -0.73245156 -0.67654848 0
-0.50218028 0.13184081 1.7007549 61 12 7 -0.017486116 -0.87099344 -0.49098352 0
-0.50037962 0.1343202 1.6946565 62 13 8 -0.20494293 -0.93431711 -0.29163325 0
-0.4968521 0.13630457 1.6827098 61 12 7 -0.38418874 -0.85104001 -0.35795262 0
-0.49566862 0.1389042 1.6787016 60 11 6 -0.39939451 -0.69666141 -0.59594208 0
-0.4946059 0.14152434 1.6751025 60 9 6 -0.3178117 -0.72297961 -0.61342984 0
-0.49352315 0.14412624 1.6714355 63 12 8 -0.31431946 -0.70647043 -0.63411576 0
-0.49258855 0.14675941 1.6682701 61 11 0 -0.35789019 -0.63650572 -0.68320936 0
-0.49179864 0.14942555 1.6655951 60 11 0 -0.40870455 -0.57082111 -0.71212631 0
-0.49106649 0.15210024 1.6631155 61 13 0 -0.40718916 -0.65575063 -0.63575798 0
-0.48985019 0.15461342 1.6589961 58 10 0 -0.28657788 -0.86922652 -0.40288764 0
-0.48735607 0.15670145 1.6505492 56 7 3 -0.29463011 -0.90151417 -0.31696251 0
-0.48499861 0.15880483 1.642565 59 9 10 -0.27432054 -0.89357889 -0.35533771 0
-0.48316804 0.16105603 1.6363654 56 6 7 -0.2385437 -0.85006154 -0.46956617 0
-0.48203257 0.16352136 1.6325198 57 7 8 -0.13723214 -0.90686119 -0.39845973 0
-0.47977835 0.16558719 1.6248854 58 9 4 -0.096186496 -0.95712709 -0.27323237 0
-0.4773604 0.16756895 1.6166965 61 13 3 -0.23613261 -0.91346103 -0.3314068 0
-0.47551277 0.16972576 1.6104389 62 15 5 -0.181097 -0.89174861 -0.41471472 0
-0.47411355 0.17202346 1.6057003 62 15 5 -0.38203341 -0.78305334 -0.49079314 0
-0.47271234 0.17430395 1.6009547 63 16 8 -0.12865397 -0.89169729 -0.43396339 0
-0.47113562 0.17650211 1.5956148 66 18 14 -0.16850995 -0.88823146 -0.42737484 0
-0.46964824 0.17871571 1.5905774 67 18 21 -0.18399708 -0.88596761 -0.42568344 0
-0.46805745 0.18087175 1.5851898 70 21 25 -0.31008187 -0.83425558 -0.45592409 0
-0.46668726 0.18309556 1.5805492 69 23 25 -0.12916403 -0.85808927 -0.4969905 0
-0.46555763 0.18539904 1.5767235 66 25 21 -0.13289583 -0.78763491 -0.60163945 0
-0.46473619 0.18781374 1.5739415 65 27 16 -0.0056982948 -0.90037161 -0.43508464 0
-0.4628652 0.18978834 1.5676049 65 30 11 -0.24607246 -0.89574176 -0.37026364 0
-0.46117809 0.19181743 1.5618911 65 31 6 -0.32177871 -0.8880583 -0.32834563 0
-0.4587014 0.19349349 1.5535033 65 34 3 -0.19724482 -0.89287555 -0.40480581 0
-0.45805481 0.1959231 1.5513134 66 36 2 -0.21827179 -0.60497296 -0.76574492 0
-0.45745993 0.19836758 1.5492986 68 38 2 -0.31368288 -0.49797601 -0.80846947 0
-0.45703658 0.20088036 1.5478649 66 36 2 -0.30395514 -0.3534846 -0.88468069 0
-0.45679039 0.20346707 1.547031 70 39 8 -0.32072851 -0.26835752 -0.90835971 0
-0.45653352 0.20604609 1.5461612 70 41 11 -0.3158085 -0.27485079 -0.90814209 0
-0.41715187 0.1931942 1.4127856 49 21 0 0.48418251 -0.11074693 -0.86792994 0
-0.41707346 0.19561851 1.4125201 38 9 0 0.56869042 -0.083261617 -0.81832677 0
-0.4170306 0.19805874 1.412375 38 8 0 0.64348805 -0.053085107 -0.76361322 0
-0.4169932 0.2005011 1.4122483 44 13 8 0.70932931 -0.068861477 -0.70150554 0
-0.41692197 0.20292659 1.412007 47 14 5 0.77968061 -0.030111462 -0.62545311 0
-0.41694233 0.20539635 1.412076 51 17 8 0.81640005 0.068088166 -0.57345885 0
-0.41704488 0.20790729 1.4124234 55 17 14 0.82734209 0.15782781 -0.53906906 0
-0.41724405 0.2104682 1.4130979 38 3 0 0.82254881 0.23239066 -0.51904523 0
-0.41750941 0.21306525 1.4139966 25 0 0 0.82595271 0.2364196 -0.51176947 0
-0.52211148 0.082112461 1.7787509 47 20 0 0.035952367 -0.1061888 -0.99369586 0
-0.52198887 0.085191078 1.7783331 50 17 0 0.077520877 -0.20524536 -0.97563565 0
-0.52174133 0.088246986 1.7774898 47 7 0 0.13529025 -0.33734575 -0.9316085 0
-0.52136827 0.091278113 1.776219 54 9 3 0.21050233 -0.49618676 -0.84231079 0
-0.52077198 0.094264366 1.7741873 57 10 0 0.21239091 -0.5691542 -0.79432589 0
-0.52020395 0.097248778 1.7722522 56 9 0 0.18353643 -0.65143657 -0.73616904 0
-0.51934266 0.1001699 1.7693179 55 11 2 0.1822485 -0.90650338 -0.38083729 0
-0.51683199 0.10275288 1.7607645 54 9 3 0.33413669 -0.92923939 -0.15769212 0
-0.51394701 0.10522951 1.7509358 60 12 10 0.090426669 -0.94779438 -0.30579215 0
-0.51246655 0.10796771 1.7458922 62 14 14 -0.081546828 -0.9014104 -0.42521715 0
-0.51042747 0.11056735 1.7389452 60 10 9 -0.15186936 -0.90842658 -0.38948277 0
-0.50845432 0.11315747 1.7322232 58 9 5 -0.10676732 -0.90947968 -0.40180531 0
-0.50667888 0.11576932 1.7261746 60 11 4 -0.074912988 -0.92915297 -0.36202615 0
-0.50437993 0.11823741 1.7183422 61 12 5 -0.10024518 -0.9166435 -0.38693127 0
-0.50284606 0.1208621 1.7131168 60 9 6 -0.02253662 -0.82637316 -0.56267178 0
-0.50202173 0.12364331 1.7103083 59 8 5 0.012309821 -0.76731461 -0.64115274 0
-0.50093001 0.12634732 1.706589 59 8 5 -0.0033868251 -0.73689282 -0.67600095 0
-0.50025821 0.12914677 1.7043003 60 9 5 0.053447526 -0.74153769 -0.6687789 0
-0.49918574 0.13183244 1.7006465 60 11 4 -0.11424476 -0.89506227 -0.43105879 0
-0.49692822 0.13418534 1.6929555 60 11 4 -0.096972242 -0.9606806 -0.26017103 0
-0.49378783 0.13626789 1.6822567 60 11 6 -0.028731668 -0.96150815 -0.27327007 0
-0.49209467 0.13872102 1.6764884 60 11 6 -0.28458044 -0.79373574 -0.53758496 0
-0.49116746 0.14137459 1.6733296 59 8 4 -0.35619724 -0.68506503 -0.63546008 0
-0.49010387 0.14397711 1.6697061 63 13 6 -0.37234262 -0.68446934 -0.62678766 0
-0.48914003 0.14659683 1.6664224 60 10 1 -0.40366003 -0.62927705 -0.66413033 0
-0.48831931 0.1492489 1.6636263 58 8 0 -0.37330005 -0.65207738 -0.65988046 0
-0.48731816 0.15183499 1.6602155 61 13 1 -0.40245524 -0.71583986 -0.57061642 0
-0.48597363 0.15430023 1.655635 57 8 1 -0.29863596 -0.86606771 -0.40092796 0
-0.48360014 0.15641668 1.6475489 53 4 0 -0.30245772 -0.87903303 -0.36853787 0
-0.48189324 0.15872444 1.6417336 57 7 6 -0.26755229 -0.86811393 -0.41808367 0
-0.4801586 0.16100268 1.6358241 56 6 7 -0.14529547 -0.87940019 -0.45337036 0
-0.47893324 0.16343422 1.6316495 57 7 6 -0.20150627 -0.87895495 -0.43224233 0
-0.47698054 0.16559856 1.6249969 59 10 5 -0.023877762 -0.96840262 -0.24824622 0
-0.47420308 0.16744857 1.6155347 62 13 6 -0.022611111 -0.96059394 -0.27703461 0
-0.47268513 0.16971782 1.6103631 64 17 7 0.03048994 -0.93526757 -0.35262576 0
-0.47085696 0.17185576 1.6041348 64 17 9 -0.10634193 -0.89305466 -0.43720105 0
-0.4697625 0.17424424 1.6004063 65 18 12 -0.030636318 -0.89257413 -0.4498587 0
-0.46814337 0.17642196 1.5948901 69 21 19 -0.0068612639 -0.93051064 -0.36620057 0
-0.46651351 0.17857639 1.5893375 65 16 19 -0.018820258 -0.93019497 -0.36658293 0
-0.46489599 0.18071623 1.5838268 67 21 23 -0.10177321 -0.88540924 -0.45353362 0
-0.46377882 0.18303435 1.5800208 68 24 21 -0.054489218 -0.84941721 -0.52490133 0
-0.46263608 0.18532898 1.5761276 66 26 16 -0.11268252 -0.77378565 -0.6233446 0
-0.46194717 0.18779452 1.5737807 64 29 10 -0.097258471 -0.90058345 -0.4236629 0
-0.45975679 0.18963261 1.5663184 62 31 3 -0.13336225 -0.96001083 -0.24615803 0
-0.45719185 0.19128796 1.55758 62 31 0 -0.45036307 -0.82043183 -0.35222834 0
-0.45567837 0.19335905 1.5524238 63 33 0 -0.25509733 -0.78543514 -0.5639298 0
-0.45506507 0.19579948 1.5503343 66 37 0 -0.33813122 -0.57894546 -0.74194974 0
-0.45439616 0.19820839 1.5480555 69 40 0 -0.37851158 -0.49030578 -0.78506637 0
-0.45401117 0.20073485 1.5467439 65 35 0 -0.37463033 -0.31896573 -0.87058204 0
-0.453767 0.20331989 1.545912 68 37 6 -0.37067622 -0.24379273 -0.89619428 0
-0.4535408 0.20591022 1.5451415 68 38 10 -0.33706564 -0.24128324 -0.91003805 0
-0.41501802 0.19334663 1.4139005 43 14 0 0.46520936 -0.019230705 -0.88499177 0
-0.41500446 0.19580323 1.4138542 37 8 0 0.54140711 0.0044516791 -0.84074891 0
-0.41502449 0.19827573 1.4139224 40 7 0 0.59915221 0.029649006 -0.80008596 0
-0.41504854 0.20075046 1.4140046 44 11 4 0.65207368 0.021815475 -0.75784171 0
-0.41505781 0.20321819 1.414036 47 14 5 0.70806521 0.063106835 -0.70332158 0
-0.41514975 0.20572695 1.4143492 49 16 7 0.74471802 0.14249159 -0.65199029 0
-0.41530034 0.20826633 1.4148623 50 16 14 0.75718588 0.2120433 -0.61782467 0
-0.4155291 0.21084706 1.4156415 30 0 0 0.75495541 0.27169999 -0.59684294 0
-0.41580597 0.21345526 1.4165848 17 0 0 0.76009059 0.27353308 -0.58944196 0
-0.51903754 0.082116418 1.7788354 63 37 4 0.023131957 -0.073638633 -0.99701679 0
-0.51895338 0.085201323 1.7785468 53 21 0 0.063162923 -0.15179196 -0.98639226 0
-0.51876646 0.088267691 1.7779062 50 10 0 0.12453517 -0.26683345 -0.95566261 0
-0.51847363 0.091313265 1.7769028 48 4 0 0.18744214 -0.4410972 -0.87766659 0
-0.51793236 0.094310075 1.7750475 59 13 0 0.22898772 -0.57463831 -0.78571981 0
-0.51729953 0.09728314 1.7728789 54 8 0 0.22029997 -0.62658387 -0.74756986 0
-0.51659793 0.10023537 1.7704744 55 10 4 0.15045966 -0.91202235 -0.38154572 0
-0.51386559 0.1027731 1.7611102 56 11 6 0.055950973 -0.96906191 -0.24039227 0
-0.51106018 0.10526315 1.7514955 61 13 11 0.13454029 -0.95487905 -0.26477334 0
-0.50915718 0.10791092 1.7449737 59 11 7 -0.089507192 -0.91811305 -0.38607872 0
-0.5071525 0.11051379 1.7381033 60 11 6 -0.096215814 -0.91826725 -0.38409346 0
-0.50524157 0.11311376 1.7315542 61 12 7 -0.08056578 -0.91041636 -0.40577236 0
-0.50352389 0.11573537 1.7256674 59 10 5 -0.053294774 -0.93357277 -0.35440299 0
-0.50116473 0.1181851 1.7175821 63 14 9 -0.066810168 -0.91813791 -0.39058834 0
-0.49982867 0.12085405 1.713003 63 12 9 -0.076844342 -0.78732413 -0.61173177 0
-0.4990375 0.12364209 1.7102915 60 9 6 -0.017138952 -0.76230621 -0.64698952 0
-0.49792799 0.12633988 1.7064891 62 12 5 -0.044425346 -0.72274125 -0.68968958 0
-0.49731961 0.12915465 1.7044041 61 11 2 -0.14009713 -0.77200431 -0.61998564 0
-0.49583194 0.13172852 1.6993055 61 12 0 -0.16256678 -0.88750714 -0.43116486 0
-0.49393314 0.13417283 1.6927979 62 12 1 -0.069439396 -0.95897681 -0.27484822 0
-0.49084622 0.13626473 1.6822186 60 11 4 -0.09119802 -0.95743322 -0.27386945 0
-0.48888651 0.13863945 1.6755023 61 12 7 -0.19526289 -0.86585051 -0.46062484 0
-0.48774076 0.14122638 1.6715755 61 10 7 -0.32483152 -0.74304491 -0.58512282 0
-0.48660374 0.14380223 1.6676788 60 9 6 -0.37163261 -0.69846255 -0.6115877 0
-0.48563853 0.14641638 1.6643709 62 11 7 -0.37269095 -0.61912048 -0.69122452 0
-0.48495862 0.14910667 1.6620407 60 10 3 -0.39486066 -0.61693794 -0.68078828 0
-0.48396033 0.15168902 1.6586194 60 10 3 -0.29843429 -0.74373037 -0.59816569 0
-0.48279357 0.15420569 1.6546206 60 10 3 -0.28324854 -0.87484944 -0.39294875 0
-0.48021033 0.1562475 1.6457675 56 6 0 -0.26536801 -0.90815496 -0.3237814 0
-0.47822204 0.15845568 1.6389533 60 10 3 -0.33493996 -0.82996833 -0.44605827 0
-0.47698116 0.16089214 1.6347005 59 11 1 -0.32575861 -0.78883332 -0.52117503 0
-0.47562021 0.16327259 1.6300364 61 13 3 -0.26583639 -0.8455832 -0.46294719 0
-0.47400123 0.16554669 1.6244878 61 13 3 -0.10519698 -0.94036657 -0.32348779 0
-0.47162738 0.16753329 1.6163522 62 13 6 0.1116157 -0.95831847 -0.26299715 0
-0.47001049 0.16976495 1.6108108 63 16 10 0.079882815 -0.94263101 -0.32413819 0
-0.46817341 0.17189646 1.6045148 64 16 12 0.22178474 -0.91392547 -0.33992931 0
-0.46704194 0.17426938 1.6006371 66 18 16 0.16470528 -0.89670122 -0.41085163 0
-0.46555269 0.17649308 1.5955331 69 21 17 0.1182427 -0.92430538 -0.36287495 0
-0.46404132 0.17869054 1.5903534 63 19 10 0.19896951 -0.93582803 -0.2909247 0
-0.46222222 0.18074955 1.584119 64 20 7 0.14952517 -0.92578268 -0.34722978 0
-0.46103647 0.18303834 1.5800552 67 25 9 0.01380056 -0.87891054 -0.47678709 0
-0.45979926 0.18529224 1.5758151 66 28 7 -0.12100348 -0.81657517 -0.56441391 0
-0.45894307 0.18768711 1.5728807 65 31 3 -0.36600772 -0.82097399 -0.43822366 0
-0.45674664 0.18951574 1.5653532 64 34 0 -0.18248536 -0.95877844 -0.21781419 0
-0.45351276 0.19088149 1.5542701 63 34 0 -0.28151461 -0.90563166 -0.3171449 0
-0.4526031 0.19320069 1.5511525 63 36 0 -0.32133704 -0.67072123 -0.66848755 0
-0.4519057 0.19560093 1.5487624 67 40 0 -0.44117168 -0.554443 -0.7056632 0
-0.45125374 0.19801278 1.546528 66 39 0 -0.43517432 -0.45005658 -0.77978998 0
-0.45090941 0.20055373 1.5453479 68 40 0 -0.43245593 -0.2757287 -0.85846108 0
-0.45068967 0.20314665 1.5445949 65 36 2 -0.42066252 -0.19618572 -0.88575077 0
-0.45051885 0.20575935 1.5440094 70 40 14 -0.38415819 -0.17788635 -0.90596849 0
-0.4128826 0.19350021 1.4150232 42 10 0 0.68910521 0.061697941 -0.72203004 0
-0.41293111 0.19598822 1.4151895 41 9 0 0.66604441 0.073072895 -0.74232423 0
-0.41299605 0.19848466 1.4154121 44 10 0 0.7145685 0.08206971 -0.69473487 0
-0.41306356 0.20098312 1.4156433 46 9 1 0.75046253 0.08080744 -0.65595436 0
-0.41313073 0.20348227 1.4158736 48 13 7 0.73731381 0.13066089 -0.66279411 0
-0.41328245 0.20602436 1.4163936 46 13 8 0.79005641 0.18575618 -0.58421355 0
-0.4134703 0.20858648 1.4170374 52 21 18 0.7820996 0.23292902 -0.57798296 0
-0.41371718 0.21118097 1.4178835 21 0 0 0.75155067 0.28472629 -0.595065 0
-0.41400197 0.213798 1.4188595 13 3 0 0.72272003 0.29616669 -0.62446862 0
-0.45863897 0.28887406 1.5718385 1 15 41 -0.31738552 7.5662036e-05 -0.94829661 0
-0.45863903 0.29161221 1.5718387 9 28 58 -0.33054677 -0.12003644 -0.93612504 0
-0.45841646 0.29420754 1.571076 15 34 64 -0.31373087 -0.29125395 -0.90373892 0
-0.51590526 0.085209563 1.7787198 63 32 1 0.046564016 -0.10388432 -0.99349874 0
-0.51577109 0.088285126 1.7782571 50 13 0 0.093257099 -0.20978998 -0.97328901 0
-0.51553237 0.091340557 1.777434 55 11 0 0.13168797 -0.3867166 -0.9127478 0
-0.51505578 0.094349563 1.7757909 56 10 0 0.18652484 -0.5265485 -0.8294307 0
-0.51449585 0.097337037 1.7738603 57 9 0 0.18395515 -0.62190813 -0.7611773 0
-0.51374245 0.10028008 1.7712629 56 9 3 0.12822013 -0.91566223 -0.38094917 0
-0.5110153 0.10281689 1.7618603 54 9 4 0.094452381 -0.96504897 -0.24445729 0
-0.50850588 0.10536603 1.7532083 60 12 8 0.25792474 -0.9447118 -0.20247096 0
-0.50600511 0.10788695 1.7445862 58 11 5 0.065491296 -0.95409119 -0.2922686 0
-0.50396115 0.11047794 1.7375392 59 10 3 -0.05773842 -0.92557347 -0.37413892 0
-0.50210005 0.11308561 1.7311227 61 12 5 -0.033165168 -0.91441798 -0.40341017 0
-0.50043344 0.11571581 1.7253764 60 11 4 -0.015012723 -0.93590462 -0.3519336 0
-0.49812615 0.11817405 1.7174214 63 14 7 -0.0096863965 -0.9297365 -0.36809817 0
-0.49667132 0.12081192 1.7124057 63 12 8 -0.069267295 -0.7875877 -0.61229706 0
-0.49602053 0.12363273 1.7101618 61 10 6 -0.022379141 -0.74298549 -0.66893339 0
-0.49487939 0.12632054 1.7062273 64 14 5 -0.046199653 -0.79046339 -0.61076462 0
-0.49394217 0.12904793 1.7029961 63 14 0 -0.12061258 -0.79893321 -0.58920151 0
-0.49264368 0.13166752 1.6985193 62 13 0 -0.16845834 -0.88085055 -0.44240704 0
-0.49067077 0.13408716 1.6917171 63 14 0 -0.26517531 -0.91466278 -0.30508062 0
-0.4874498 0.13613464 1.680612 61 13 1 -0.12834719 -0.95230091 -0.27685747 0
-0.4855583 0.13852262 1.6740905 62 13 6 -0.29951727 -0.82986158 -0.47076452 0
-0.48434559 0.14108564 1.6699094 62 12 5 -0.22373722 -0.79658026 -0.56160629 0
-0.48317492 0.1436466 1.6658732 62 11 7 -0.24043493 -0.73887187 -0.62949145 0
-0.48234993 0.14629829 1.6630287 63 12 8 -0.2081482 -0.70015496 -0.68297684 0
-0.48145536 0.14891857 1.6599445 61 10 6 -0.26382551 -0.67443961 -0.68958485 0
-0.48067015 0.15156268 1.6572373 61 11 4 -0.20198539 -0.81703812 -0.54004699 0
-0.47899756 0.15391211 1.6514705 61 11 4 -0.37383541 -0.8497318 -0.3717567 0
-0.4765335 0.15598242 1.6429752 57 7 0 -0.27403033 -0.89373094 -0.3551794 0
-0.47487864 0.15829286 1.6372695 61 11 0 -0.21509291 -0.87297964 -0.43776906 0
-0.47339165 0.16064039 1.6321428 63 15 3 -0.29132301 -0.80166054 -0.52198774 0
-0.47231713 0.16311249 1.628438 63 15 1 -0.30087259 -0.79477322 -0.52707809 0
-0.47087473 0.16544247 1.6234651 63 15 3 -0.11406508 -0.9112727 -0.39569086 0
-0.46903622 0.16761354 1.6171263 65 17 7 0.12835692 -0.9438104 -0.30454317 0
-0.46736568 0.16982354 1.6113666 67 20 12 0.090049364 -0.92470002 -0.36989334 0
-0.46598405 0.17212024 1.606603 68 21 15 0.28653079 -0.88932389 -0.35637495 0
-0.46466553 0.17442402 1.6020572 68 20 16 0.18910082 -0.9214769 -0.33929536 0
-0.46296838 0.17656748 1.5962057 70 23 17 0.2749705 -0.90963948 -0.31136382 0
-0.4616805 0.17884918 1.5917654 64 21 5 0.23576447 -0.92265654 -0.30515572 0
-0.45986021 0.18090594 1.5854895 63 22 0 0.24445435 -0.93237931 -0.26629117 0
-0.45831186 0.18304944 1.5801512 65 28 2 0.12756166 -0.92944121 -0.34621814 0
-0.45683667 0.185204 1.5750651 64 29 1 -0.15193266 -0.9086768 -0.38887408 0
-0.45511055 0.18723768 1.5691139 64 31 0 -0.34957758 -0.85636234 -0.3800514 0
-0.45327175 0.1892035 1.5627741 64 34 0 -0.17211966 -0.95037782 -0.25914633 0
-0.45048723 0.19074686 1.5531738 63 35 0 -0.090004846 -0.94795507 -0.30541801 0
-0.44950461 0.19303045 1.5497859 65 38 0 -0.36325213 -0.70903367 -0.60441631 0
-0.44859666 0.19533487 1.5466554 67 40 0 -0.4471083 -0.58166146 -0.67953229 0
-0.44804555 0.19778585 1.5447553 69 42 0 -0.44827169 -0.39493001 -0.80192441 0
-0.44774309 0.20034151 1.5437126 70 42 2 -0.44073588 -0.24444237 -0.86371279 0
-0.44754872 0.20294248 1.5430424 65 36 4 -0.42393115 -0.16131006 -0.89121342 0
-0.4474245 0.20557337 1.5426141 67 37 13 -0.38137445 -0.13097464 -0.91509509 0
-0.41116986 0.19385481 1.4176166 40 8 0 0.99751365 -0.031363059 -0.063108459 0
-0.41110688 0.19629423 1.4173996 40 7 0 0.92753637 0.033353195 -0.37224156 0
-0.4112449 0.1988301 1.4178754 43 6 0 0.90258366 0.11910981 -0.41370964 0
-0.41136593 0.20135929 1.4182928 46 9 1 0.89984995 0.054814756 -0.43274179 0
-0.4113594 0.20382673 1.4182702 51 13 10 0.7739563 0.16546255 -0.61123961 0
-0.41165811 0.20644714 1.4193001 50 16 14 0.85901183 0.21937129 -0.46257424 0
-0.41182214 0.20900279 1.4198656 39 10 6 0.86096525 0.16452046 -0.48132318 0
-0.41199207 0.21156351 1.4204515 20 0 0 0.82717168 0.18568198 -0.53038585 0
-0.45564848 0.28871417 1.5709685 0 9 34 -0.27641338 -0.022278327 -0.96078056 0
-0.45562851 0.29143795 1.5708996 0 6 35 -0.3019833 -0.12573582 -0.94498503 0
-0.45542192 0.2940411 1.5701873 8 27 59 -0.30040461 -0.30144355 -0.90492481 0
-0.45508149 0.29655457 1.5690136 19 38 68 -0.31317922 -0.43821293 -0.84254861 0
-0.51283908 0.085214913 1.778832 63 34 0 0.011007516 -0.073598839 -0.99722719 0
-0.51273698 0.088296063 1.7784778 57 21 0 0.031316508 -0.17609453 -0.98387498 0
-0.51252514 0.091356404 1.7777427 59 16 7 0.043212153 -0.33890858 -0.93982649 0
-0.51211303 0.094377279 1.7763135 59 12 4 0.096776396 -0.51623839 -0.8509596 0
-0.51150894 0.097356707 1.7742182 58 9 2 0.063170381 -0.57973659 -0.81235147 0
-0.51091504 0.1003307 1.772158 56 9 1 0.11633448 -0.90584761 -0.40731609 0
-0.50823927 0.10287622 1.762877 57 10 2 0.15861446 -0.95100904 -0.26537424 0
-0.50631815 0.10554669 1.7562133 59 12 4 0.17850116 -0.95473176 -0.23795947 0
-0.50338781 0.10797744 1.7460493 58 11 3 0.14837417 -0.96682644 -0.20792265 0
-0.50085485 0.11046042 1.7372634 60 12 2 -0.008197872 -0.94545025 -0.32566369 0
-0.4990817 0.11308493 1.7311131 61 13 1 -5.7259393e-05 -0.91355729 -0.40671006 0
-0.4974483 0.11572057 1.7254475 61 11 0 0.00075885293 -0.93716198 -0.34889376 0
-0.49514174 0.11817582 1.717447 65 15 4 0.004251041 -0.9323898 -0.36142951 0
-0.4936766 0.12080909 1.7123649 64 14 5 0.0043355371 -0.8033886 -0.59543937 0
-0.49302518 0.12362865 1.7101053 62 12 3 0.0016283543 -0.75327945 -0.65769869 0
-0.49186185 0.12630892 1.7060703 65 16 2 0.0052856407 -0.78464687 -0.61992049 0
-0.49104574 0.12906635 1.7032396 64 15 0 0.027018638 -0.8648566 -0.50129151 0
-0.48928937 0.13156116 1.6971475 63 15 0 -0.092032664 -0.94607127 -0.3106111 0
-0.48653802 0.1337612 1.6876042 64 16 0 -0.17433515 -0.93939537 -0.29520112 0
-0.48430121 0.1360725 1.6798456 62 15 0 -0.085288152 -0.95127779 -0.29630485 0
-0.48193654 0.13832013 1.6716434 63 15 3 -0.22210518 -0.8566696 -0.46560341 0
-0.48125142 0.14103132 1.6692669 64 14 3 -0.1320826 -0.73518801 -0.6648705 0
-0.48014799 0.14360921 1.6654396 64 14 3 -0.03189135 -0.78156173 -0.62301219 0
-0.47933158 0.14626125 1.6626078 64 14 5 -0.047982365 -0.72286338 -0.68932301 0
-0.47851461 0.14890334 1.6597742 61 11 2 0.018437644 -0.76053512 -0.64903498 0
-0.47757706 0.15149722 1.6565222 62 12 5 -0.083481371 -0.91247249 -0.40053067 0
-0.47521842 0.15362041 1.6483409 61 11 4 -0.22232357 -0.91824454 -0.32771802 0
-0.47322169 0.1558343 1.6414152 58 8 1 -0.18670869 -0.8993879 -0.39527386 0
-0.47174245 0.15819764 1.6362842 61 11 4 -0.20546037 -0.85868764 -0.46951208 0
-0.47036046 0.16057621 1.6314907 63 15 3 -0.14886928 -0.8674593 -0.47471279 0
-0.46899375 0.16294342 1.6267501 62 14 0 -0.24368565 -0.80945528 -0.53422785 0
-0.46793309 0.16540228 1.6230711 62 15 0 -0.088026688 -0.86419892 -0.49539027 0
-0.4664703 0.16770382 1.6179973 66 19 3 0.127482 -0.93364906 -0.33473566 0
-0.46469378 0.16987289 1.6118352 69 23 8 0.12181795 -0.92392653 -0.36265677 0
-0.46344763 0.17221768 1.6075128 69 23 8 0.28745967 -0.88403296 -0.36858228 0
-0.4620806 0.17450173 1.6027712 69 22 12 0.30399776 -0.8780058 -0.36971775 0
-0.46089086 0.17683728 1.5986445 70 24 11 0.40393308 -0.86856735 -0.28710413 0
-0.45929042 0.17899838 1.5930932 66 24 2 0.3284485 -0.91249907 -0.24385899 0
-0.45758089 0.18109691 1.5871634 66 24 0 0.41121343 -0.88855249 -0.20341583 0
-0.45594418 0.1832041 1.5814865 67 27 1 0.13915761 -0.95848447 -0.24888265 0
-0.45377699 0.18507519 1.5739694 63 27 1 -0.16344208 -0.93535405 -0.31368721 0
-0.45201528 0.18708788 1.5678587 63 29 4 -0.15331848 -0.91633397 -0.36989918 0
-0.45045915 0.18916562 1.5624611 66 32 5 -0.20922177 -0.93392044 -0.28986025 0
-0.44774279 0.19073029 1.5530391 64 33 4 -0.075852804 -0.96269393 -0.25974366 0
-0.44623637 0.19278486 1.5478139 66 35 4 -0.43347752 -0.73543227 -0.52080381 0
-0.44539532 0.19511274 1.5448967 68 38 0 -0.42121831 -0.565911 -0.7087453 0
-0.44490287 0.1975852 1.5431885 72 43 3 -0.42485917 -0.36852527 -0.82685173 0
-0.44463506 0.2001529 1.5422597 71 43 6 -0.41306984 -0.21857521 -0.88408047 0
-0.44447595 0.20276695 1.5417079 67 38 8 -0.4606078 -0.10561982 -0.88129735 0
-0.44442049 0.20542698 1.5415155 65 34 13 -0.3454428 -0.060534984 -0.93648535 0
-0.41194659 0.19539458 1.4288765 38 8 0 0.84435558 -0.52328134 0.11506731 0
-0.41007683 0.19698547 1.4223911 41 8 1 0.92999321 -0.36441055 0.048143044 0
-0.41001722 0.19943431 1.4221843 40 6 0 0.99904633 -0.01753163 -0.039989229 0
-0.41000104 0.20190381 1.4221282 51 14 6 0.98705107 -0.12880374 -0.095602669 0
-0.4095557 0.20415916 1.4205836 51 11 11 0.94641119 0.060384978 -0.31726888 0
-0.41014943 0.20693335 1.4226428 45 9 11 0.91442841 0.26557678 -0.30543339 0
-0.41027075 0.20947355 1.4230638 39 11 10 0.93706489 0.09029904 -0.33727667 0
-0.41036665 0.2120021 1.4233963 15 0 0 0.91529614 0.087942965 -0.3930636 0
-0.45266968 0.28855982 1.5701284 0 0 20 -0.27714562 -0.054077528 -0.95930499 0
-0.45262173 0.29126409 1.5699621 5 5 29 -0.30986577 -0.14953873 -0.93894696 0
-0.45240092 0.29385552 1.5691963 1 6 35 -0.327317 -0.31517404 -0.89080232 0
-0.45204112 0.29635322 1.5679482 15 30 63 -0.33432108 -0.44731465 -0.82954156 0
-0.45153955 0.2987527 1.5662085 21 45 83 -0.30168998 -0.67089587 -0.6774081 0
-0.51288754 0.49429342 1.779 1 4 21 -3.8467457e-05 -3.8467457e-05 -1 0
-0.50963116 0.088294722 1.7784508 60 26 0 -0.06074252 -0.16955258 -0.98364747 0
-0.50941885 0.091354765 1.77771 58 16 0 -0.075213723 -0.30461672 -0.94950068 0
-0.5090583 0.094384663 1.7764517 59 12 2 -0.03778078 -0.48722947 -0.87245631 0
-0.5084455 0.097361885 1.7743131 62 14 4 -0.022834796 -0.52621531 -0.85004479 0
-0.50798959 0.10036264 1.7727224 59 12 2 0.039483555 -0.87190861 -0.48807418 0
-0.5056386 0.10297198 1.7645181 60 13 3 0.14117381 -0.95458061 -0.26238474 0
